Version 1.0
282
4.7080421e-001 -7.1236000e+001 -6.1424976e+002
3.8703972e+001 -3.8330269e+001 -6.0165869e+002
4.7903481e+001 -3.0688711e+001 -5.9081079e+002
6.2395897e+001 -2.5028009e+001 -5.8997754e+002
1.9140720e+000 -6.3052673e+001 -6.1863324e+002
2.5709548e+000 -6.0561470e+001 -6.1409668e+002
4.7080266e-001 -7.1236008e+001 -6.1424976e+002
1.5832828e+000 -7.1339355e+001 -6.1407202e+002
2.7884636e+000 -7.1195938e+001 -6.1392090e+002
4.0587573e+000 -7.0952049e+001 -6.1380267e+002
5.4432006e+000 -7.0721832e+001 -6.1371252e+002
6.9198132e+000 -7.0266022e+001 -6.1364917e+002
8.4826508e+000 -6.9633194e+001 -6.1361432e+002
1.0122074e+001 -6.8820854e+001 -6.1360907e+002
1.1773033e+001 -6.7734612e+001 -6.1364258e+002
1.3532606e+001 -6.6557167e+001 -6.1370306e+002
1.3532606e+001 -6.6557167e+001 -6.1370306e+002
1.5375921e+001 -6.5264359e+001 -6.1365112e+002
1.7112965e+001 -6.3794579e+001 -6.1350934e+002
1.8855085e+001 -6.2297760e+001 -6.1326825e+002
2.0518318e+001 -6.0682053e+001 -6.1292633e+002
2.2187708e+001 -5.9038269e+001 -6.1248767e+002
2.3886065e+001 -5.7384941e+001 -6.1195154e+002
2.5472281e+001 -5.5581783e+001 -6.1132312e+002
2.7145157e+001 -5.3825920e+001 -6.1058875e+002
2.8749247e+001 -5.1962143e+001 -6.0976343e+002
2.8749247e+001 -5.1962143e+001 -6.0976343e+002
2.9595404e+001 -5.1018353e+001 -6.0921265e+002
3.0563702e+001 -4.9994614e+001 -6.0855524e+002
3.1627096e+001 -4.8852486e+001 -6.0781531e+002
3.2739521e+001 -4.7548592e+001 -6.0699591e+002
3.3999374e+001 -4.6188580e+001 -6.0606287e+002
3.5223717e+001 -4.4606812e+001 -6.0501910e+002
3.6472786e+001 -4.2886448e+001 -6.0380847e+002
3.7567463e+001 -4.0761093e+001 -6.0263916e+002
3.8703972e+001 -3.8330269e+001 -6.0165869e+002
3.8703972e+001 -3.8330269e+001 -6.0165869e+002
3.9235157e+001 -3.7659527e+001 -6.0135840e+002
3.9777058e+001 -3.7028721e+001 -6.0101276e+002
4.0322578e+001 -3.6422039e+001 -6.0064233e+002
4.0854637e+001 -3.5812698e+001 -6.0026581e+002
4.1375244e+001 -3.5201687e+001 -5.9987628e+002
4.1909481e+001 -3.4631889e+001 -5.9944165e+002
4.2451820e+001 -3.4091331e+001 -5.9897369e+002
4.3002197e+001 -3.3580513e+001 -5.9847296e+002
4.3553890e+001 -3.3139263e+001 -5.9790173e+002
4.3553890e+001 -3.3139263e+001 -5.9790173e+002
4.4208199e+001 -3.2709270e+001 -5.9726068e+002
4.4815876e+001 -3.2324303e+001 -5.9656683e+002
4.5379715e+001 -3.1946257e+001 -5.9584894e+002
4.5907963e+001 -3.1740305e+001 -5.9505359e+002
4.6391052e+001 -3.1466658e+001 -5.9426605e+002
4.6834343e+001 -3.1264208e+001 -5.9343457e+002
4.7238087e+001 -3.1225483e+001 -5.9250372e+002
4.7586914e+001 -3.1120426e+001 -5.9154279e+002
4.7903481e+001 -3.0688709e+001 -5.9081079e+002
6.2395901e+001 -2.5028011e+001 -5.8997754e+002
6.3142178e+001 -2.4150988e+001 -5.9026141e+002
6.3775719e+001 -2.3198551e+001 -5.9095911e+002
6.4038918e+001 -2.2399525e+001 -5.9189490e+002
6.4055008e+001 -2.1808321e+001 -5.9282031e+002
6.3999008e+001 -2.1345980e+001 -5.9369989e+002
6.4103943e+001 -2.0865616e+001 -5.9455249e+002
6.4101852e+001 -2.0486685e+001 -5.9545886e+002
6.4251694e+001 -2.0067173e+001 -5.9637543e+002
6.4489830e+001 -1.9649214e+001 -5.9726776e+002
6.4489830e+001 -1.9649214e+001 -5.9726776e+002
6.4375702e+001 -1.9299810e+001 -5.9800232e+002
6.4208351e+001 -1.8963253e+001 -5.9876807e+002
6.4105270e+001 -1.8561329e+001 -5.9955994e+002
6.3944008e+001 -1.8175625e+001 -6.0038898e+002
6.3681702e+001 -1.7831669e+001 -6.0123730e+002
6.3235413e+001 -1.7549006e+001 -6.0208423e+002
6.2910522e+001 -1.7152742e+001 -6.0299432e+002
6.2633545e+001 -1.6710901e+001 -6.0395618e+002
6.2608280e+001 -1.6250900e+001 -6.0496692e+002
6.2608280e+001 -1.6250900e+001 -6.0496692e+002
6.2553474e+001 -1.5742905e+001 -6.0599561e+002
6.2419914e+001 -1.5254889e+001 -6.0705719e+002
6.2206993e+001 -1.4763587e+001 -6.0816125e+002
6.1793533e+001 -1.4291647e+001 -6.0929755e+002
6.1254208e+001 -1.3811838e+001 -6.1048682e+002
6.0530563e+001 -1.3341261e+001 -6.1172528e+002
5.9586246e+001 -1.2901840e+001 -6.1299939e+002
5.8402020e+001 -1.2520405e+001 -6.1427789e+002
5.6934559e+001 -1.2280842e+001 -6.1543005e+002
5.6934559e+001 -1.2280842e+001 -6.1543005e+002
5.5336666e+001 -1.2214670e+001 -6.1603021e+002
5.3709766e+001 -1.2212601e+001 -6.1679651e+002
5.1966949e+001 -1.2273473e+001 -6.1770447e+002
5.0043522e+001 -1.2660579e+001 -6.1846210e+002
4.7986492e+001 -1.3203944e+001 -6.1926788e+002
4.5792599e+001 -1.3983265e+001 -6.2003363e+002
4.3468864e+001 -1.5009254e+001 -6.2073877e+002
4.1016518e+001 -1.6281454e+001 -6.2136151e+002
3.8429283e+001 -1.7717842e+001 -6.2201489e+002
3.8429283e+001 -1.7717842e+001 -6.2201489e+002
3.6359756e+001 -1.9247292e+001 -6.2264056e+002
3.4424030e+001 -2.0861986e+001 -6.2316235e+002
3.2608818e+001 -2.2532471e+001 -6.2361969e+002
3.0896639e+001 -2.4246788e+001 -6.2401941e+002
2.9355320e+001 -2.6081631e+001 -6.2427417e+002
2.7869455e+001 -2.7917652e+001 -6.2452502e+002
2.6618391e+001 -2.9913326e+001 -6.2454803e+002
2.5329113e+001 -3.1858074e+001 -6.2470715e+002
2.4251442e+001 -3.3935963e+001 -6.2466266e+002
2.4251442e+001 -3.3935963e+001 -6.2466266e+002
2.3339483e+001 -3.5908672e+001 -6.2464130e+002
2.2460541e+001 -3.7860451e+001 -6.2448633e+002
2.1586040e+001 -3.9776928e+001 -6.2428082e+002
2.0726316e+001 -4.1659584e+001 -6.2401489e+002
1.9862307e+001 -4.3503937e+001 -6.2371576e+002
1.8964746e+001 -4.5304058e+001 -6.2342096e+002
1.8003729e+001 -4.7052635e+001 -6.2317590e+002
1.7024975e+001 -4.8760811e+001 -6.2291180e+002
1.5997029e+001 -5.0417229e+001 -6.2269714e+002
1.5997029e+001 -5.0417229e+001 -6.2269714e+002
1.4586069e+001 -5.2303364e+001 -6.2236755e+002
1.3107208e+001 -5.4057301e+001 -6.2207019e+002
1.1583281e+001 -5.5687248e+001 -6.2175250e+002
1.0072047e+001 -5.7218163e+001 -6.2129999e+002
8.5428858e+000 -5.8637089e+001 -6.2078156e+002
6.9888124e+000 -5.9940086e+001 -6.2021515e+002
5.4078445e+000 -6.1125137e+001 -6.1960803e+002
3.5836740e+000 -6.2112858e+001 -6.1928870e+002
1.9140742e+000 -6.3052673e+001 -6.1863324e+002
6.2395901e+001 -2.5028011e+001 -5.8997754e+002
6.2141171e+001 -2.5680363e+001 -5.9050293e+002
6.1392876e+001 -2.5986235e+001 -5.9198663e+002
6.0549313e+001 -2.6168917e+001 -5.9324768e+002
5.9720627e+001 -2.6446341e+001 -5.9417828e+002
5.8956127e+001 -2.6999016e+001 -5.9481268e+002
5.8250755e+001 -2.7876886e+001 -5.9519641e+002
5.7656246e+001 -2.9286810e+001 -5.9523267e+002
5.6975937e+001 -3.0643053e+001 -5.9507800e+002
5.6100407e+001 -3.1522781e+001 -5.9515686e+002
5.6100407e+001 -3.1522781e+001 -5.9515686e+002
5.5522812e+001 -2.9894600e+001 -5.9454919e+002
5.4727646e+001 -2.8303404e+001 -5.9428558e+002
5.3940742e+001 -2.7337227e+001 -5.9383527e+002
5.3127602e+001 -2.6883867e+001 -5.9330121e+002
5.2231087e+001 -2.6826403e+001 -5.9278723e+002
5.1335903e+001 -2.7410732e+001 -5.9207501e+002
5.0410294e+001 -2.8800673e+001 -5.9101605e+002
4.9180035e+001 -3.0056610e+001 -5.9044354e+002
4.7903481e+001 -3.0688709e+001 -5.9081079e+002
6.2395901e+001 -2.5028011e+001 -5.8997754e+002
6.1408672e+001 -2.5019814e+001 -5.9032971e+002
6.0410320e+001 -2.4932091e+001 -5.9094763e+002
5.9514675e+001 -2.4853302e+001 -5.9154486e+002
5.8629398e+001 -2.4818010e+001 -5.9188458e+002
5.7771423e+001 -2.4788721e+001 -5.9212213e+002
5.7008739e+001 -2.4768682e+001 -5.9244092e+002
5.6267223e+001 -2.4775192e+001 -5.9268512e+002
5.5520046e+001 -2.4773497e+001 -5.9270630e+002
5.4839981e+001 -2.4740461e+001 -5.9257202e+002
5.4839981e+001 -2.4740461e+001 -5.9257202e+002
5.3167053e+001 -2.4120663e+001 -5.9183124e+002
5.1848057e+001 -2.3513504e+001 -5.9052515e+002
5.0710819e+001 -2.3316275e+001 -5.8959784e+002
4.9775352e+001 -2.3493303e+001 -5.8891937e+002
4.9007744e+001 -2.4145380e+001 -5.8870471e+002
4.8408524e+001 -2.5225002e+001 -5.8905322e+002
4.8023361e+001 -2.6548418e+001 -5.8976300e+002
4.7881451e+001 -2.8319191e+001 -5.9012463e+002
4.7903481e+001 -3.0688709e+001 -5.9081079e+002
3.8703972e+001 -3.8330269e+001 -6.0165869e+002
3.7858093e+001 -3.7760811e+001 -6.0174896e+002
3.7002609e+001 -3.7054470e+001 -6.0258264e+002
3.6057625e+001 -3.6728386e+001 -6.0325110e+002
3.5087612e+001 -3.6634838e+001 -6.0403857e+002
3.4046646e+001 -3.6802876e+001 -6.0487561e+002
3.2951759e+001 -3.7219517e+001 -6.0579938e+002
3.1776606e+001 -3.7889988e+001 -6.0678833e+002
3.0457769e+001 -3.8819553e+001 -6.0776947e+002
2.9014908e+001 -3.9995998e+001 -6.0874402e+002
2.9014908e+001 -3.9995998e+001 -6.0874402e+002
2.7309303e+001 -4.1378807e+001 -6.0993500e+002
2.5600342e+001 -4.2733639e+001 -6.1092859e+002
2.3986776e+001 -4.4062805e+001 -6.1186774e+002
2.2386627e+001 -4.5344402e+001 -6.1264667e+002
2.0874605e+001 -4.6598461e+001 -6.1335950e+002
1.9509583e+001 -4.7860184e+001 -6.1408411e+002
1.8161974e+001 -4.9070995e+001 -6.1465607e+002
1.6843216e+001 -5.0228027e+001 -6.1508081e+002
1.5565742e+001 -5.1331905e+001 -6.1535815e+002
1.5565742e+001 -5.1331905e+001 -6.1535815e+002
1.4069938e+001 -5.2682892e+001 -6.1550787e+002
1.2557335e+001 -5.3920780e+001 -6.1551196e+002
1.1109579e+001 -5.5165260e+001 -6.1563544e+002
9.6228104e+000 -5.6216228e+001 -6.1544733e+002
8.1664858e+000 -5.7209530e+001 -6.1523767e+002
6.7177505e+000 -5.8112457e+001 -6.1492981e+002
5.2882457e+000 -5.8969521e+001 -6.1461926e+002
3.8399086e+000 -5.9731594e+001 -6.1418237e+002
2.5709608e+000 -6.0561474e+001 -6.1409668e+002
1.7536616e+000 -7.0342499e+001 -6.1654059e+002
2.0184474e+000 -6.8593460e+001 -6.1791956e+002
2.4296594e+000 -6.6109001e+001 -6.1880200e+002
5.2840104e+000 -6.9558578e+001 -6.1645026e+002
5.1849546e+000 -6.7721565e+001 -6.1835687e+002
4.8395715e+000 -6.4927917e+001 -6.1944800e+002
8.5716276e+000 -6.8289467e+001 -6.1674072e+002
8.2596607e+000 -6.6369354e+001 -6.1881244e+002
7.6209545e+000 -6.3868061e+001 -6.2019562e+002
1.1656483e+001 -6.6214172e+001 -6.1735999e+002
1.0941932e+001 -6.4087234e+001 -6.1961591e+002
1.0342382e+001 -6.1943039e+001 -6.2083875e+002
1.5148466e+001 -6.3900135e+001 -6.1734607e+002
1.4690100e+001 -6.2128681e+001 -6.1935327e+002
1.3963265e+001 -6.0368237e+001 -6.2073059e+002
1.3197206e+001 -5.8457180e+001 -6.2175311e+002
1.8317240e+001 -6.1110607e+001 -6.1744373e+002
1.7825340e+001 -5.9289406e+001 -6.1945111e+002
1.7099857e+001 -5.7589275e+001 -6.2084674e+002
1.6044369e+001 -5.5658775e+001 -6.2202350e+002
2.1274277e+001 -5.8410503e+001 -6.1689026e+002
2.0720284e+001 -5.6970081e+001 -6.1884540e+002
1.9707684e+001 -5.5169682e+001 -6.2057550e+002
1.8394478e+001 -5.2674206e+001 -6.2223523e+002
2.4391420e+001 -5.5354393e+001 -6.1611041e+002
2.3614002e+001 -5.3663845e+001 -6.1847394e+002
2.2563622e+001 -5.1695629e+001 -6.2015106e+002
2.1099966e+001 -4.9035561e+001 -6.2237122e+002
2.7408522e+001 -5.1828278e+001 -6.1516284e+002
2.6107342e+001 -4.9806332e+001 -6.1743939e+002
2.4189642e+001 -4.7182674e+001 -6.1961542e+002
2.3114140e+001 -4.4509735e+001 -6.2242657e+002
3.0067377e+001 -4.8563019e+001 -6.1343549e+002
2.8704205e+001 -4.6080219e+001 -6.1573138e+002
2.7186848e+001 -4.4022758e+001 -6.1723920e+002
2.5774237e+001 -4.1256821e+001 -6.1997382e+002
2.5165707e+001 -3.8516663e+001 -6.2302911e+002
3.2779179e+001 -4.4705887e+001 -6.1171948e+002
3.1593294e+001 -4.2235523e+001 -6.1368817e+002
3.0105768e+001 -3.9507343e+001 -6.1570197e+002
2.8973516e+001 -3.5733265e+001 -6.1931458e+002
2.8328096e+001 -3.2652851e+001 -6.2249164e+002
3.5754238e+001 -4.1955708e+001 -6.0870099e+002
3.4640091e+001 -3.9401745e+001 -6.1142877e+002
3.3463573e+001 -3.6522724e+001 -6.1369080e+002
3.2358986e+001 -3.3462646e+001 -6.1673352e+002
3.1898577e+001 -3.0449203e+001 -6.1942444e+002
3.1874378e+001 -2.7319395e+001 -6.2195734e+002
3.8500198e+001 -3.7811882e+001 -6.0664642e+002
3.7807003e+001 -3.5593731e+001 -6.0955017e+002
3.7146683e+001 -3.2894539e+001 -6.1232666e+002
3.6207741e+001 -2.9335720e+001 -6.1535870e+002
3.5910126e+001 -2.6072613e+001 -6.1802954e+002
3.5938934e+001 -2.3063980e+001 -6.2057312e+002
4.1312057e+001 -3.4539459e+001 -6.0492426e+002
4.2075523e+001 -3.1753756e+001 -6.0882166e+002
4.1756798e+001 -2.8508957e+001 -6.1133368e+002
4.1345421e+001 -2.5283064e+001 -6.1362231e+002
4.1228642e+001 -2.1885708e+001 -6.1618420e+002
4.1568642e+001 -1.8382429e+001 -6.1902319e+002
4.4586643e+001 -3.1930601e+001 -6.0278406e+002
4.6351883e+001 -3.1171253e+001 -6.0625293e+002
4.6140404e+001 -2.7116335e+001 -6.0822491e+002
4.5432693e+001 -2.4160679e+001 -6.1053381e+002
4.5463192e+001 -2.0467590e+001 -6.1357898e+002
4.6155342e+001 -1.6908197e+001 -6.1645697e+002
4.8478611e+001 -3.0407324e+001 -5.9952777e+002
5.0213707e+001 -3.0707495e+001 -6.0304413e+002
5.0808662e+001 -2.6523943e+001 -6.0455225e+002
5.1066620e+001 -2.2866718e+001 -6.0757916e+002
5.1542286e+001 -1.9906645e+001 -6.1011035e+002
5.1829781e+001 -1.7307652e+001 -6.1241235e+002
5.2090958e+001 -1.4298956e+001 -6.1506793e+002
5.1251881e+001 -3.0064861e+001 -5.9758081e+002
5.3285141e+001 -3.0732321e+001 -6.0021790e+002
5.4273209e+001 -2.6761261e+001 -6.0171185e+002
5.5343582e+001 -2.3385834e+001 -6.0381299e+002
5.6048412e+001 -2.0728956e+001 -6.0614093e+002
5.7364479e+001 -1.7813848e+001 -6.0802374e+002
5.8500908e+001 -1.5037264e+001 -6.1025629e+002
5.2396599e+001 -2.9859529e+001 -5.9613947e+002
5.5427773e+001 -3.1327431e+001 -5.9743201e+002
5.7039307e+001 -2.7661608e+001 -5.9837054e+002
5.8381111e+001 -2.4339264e+001 -5.9920215e+002
6.0667603e+001 -2.1568678e+001 -5.9929248e+002
6.3039715e+001 -2.0015402e+001 -5.9980573e+002

